2.251090e+01	1.317153e+01	2.791321e+00
2.251828e+01	1.316813e+01	2.701324e+00
2.252566e+01	1.316474e+01	2.611327e+00
2.253304e+01	1.316135e+01	2.521329e+00
2.254042e+01	1.315796e+01	2.431332e+00
2.254780e+01	1.315457e+01	2.341335e+00
2.255518e+01	1.315118e+01	2.251338e+00
2.239677e+01	1.326954e+01	3.504109e+00
2.240415e+01	1.326615e+01	3.414112e+00
2.241153e+01	1.326276e+01	3.324115e+00
2.241891e+01	1.325936e+01	3.234118e+00
2.242629e+01	1.325597e+01	3.144121e+00
2.243367e+01	1.325258e+01	3.054123e+00
2.244105e+01	1.324919e+01	2.964126e+00
2.244843e+01	1.324580e+01	2.874129e+00
2.250747e+01	1.321867e+01	2.154152e+00
2.251485e+01	1.321527e+01	2.064155e+00
2.252223e+01	1.321188e+01	1.974158e+00
2.252961e+01	1.320849e+01	1.884161e+00
2.253699e+01	1.320510e+01	1.794163e+00
2.229740e+01	1.336077e+01	4.036903e+00
2.230478e+01	1.335738e+01	3.946906e+00
2.231216e+01	1.335398e+01	3.856909e+00
2.231954e+01	1.335059e+01	3.766912e+00
2.232692e+01	1.334720e+01	3.676915e+00
2.233430e+01	1.334381e+01	3.586918e+00
2.248927e+01	1.327259e+01	1.696978e+00
2.249665e+01	1.326920e+01	1.606980e+00
2.250403e+01	1.326580e+01	1.516983e+00
2.251141e+01	1.326241e+01	1.426986e+00
2.221279e+01	1.344521e+01	4.389703e+00
2.222017e+01	1.344182e+01	4.299706e+00
2.222755e+01	1.343843e+01	4.209709e+00
2.223493e+01	1.343504e+01	4.119712e+00
2.246370e+01	1.332990e+01	1.329800e+00
2.247108e+01	1.332651e+01	1.239803e+00
2.247846e+01	1.332312e+01	1.149806e+00
2.248583e+01	1.331973e+01	1.059809e+00
2.249321e+01	1.331633e+01	9.698117e-01
2.212080e+01	1.353305e+01	4.832500e+00
2.212818e+01	1.352966e+01	4.742503e+00
2.213556e+01	1.352627e+01	4.652506e+00
2.214294e+01	1.352288e+01	4.562509e+00
2.215031e+01	1.351949e+01	4.472511e+00
2.244550e+01	1.338382e+01	8.726258e-01
2.245288e+01	1.338043e+01	7.826287e-01
2.246026e+01	1.337704e+01	6.926315e-01
2.246764e+01	1.337365e+01	6.026344e-01
2.203618e+01	1.361750e+01	5.185300e+00
2.204356e+01	1.361411e+01	5.095303e+00
2.205094e+01	1.361071e+01	5.005305e+00
2.205832e+01	1.360732e+01	4.915308e+00
2.241992e+01	1.344114e+01	5.054485e-01
2.194419e+01	1.370534e+01	5.628097e+00
2.195157e+01	1.370194e+01	5.538100e+00
2.195895e+01	1.369855e+01	5.448102e+00
2.196633e+01	1.369516e+01	5.358105e+00
2.197371e+01	1.369177e+01	5.268108e+00
2.237221e+01	1.350862e+01	4.082626e-01
2.237959e+01	1.350523e+01	3.182654e-01
2.185220e+01	1.379317e+01	6.070894e+00
2.185958e+01	1.378978e+01	5.980896e+00
2.186696e+01	1.378639e+01	5.890899e+00
2.187434e+01	1.378300e+01	5.800902e+00
2.188172e+01	1.377961e+01	5.710905e+00
2.232450e+01	1.357611e+01	3.110767e-01
2.233188e+01	1.357272e+01	2.210795e-01
2.176759e+01	1.387762e+01	6.423693e+00
2.177497e+01	1.387423e+01	6.333696e+00
2.178235e+01	1.387084e+01	6.243699e+00
2.178973e+01	1.386744e+01	6.153702e+00
2.228416e+01	1.364021e+01	1.238936e-01
2.167559e+01	1.396546e+01	6.866490e+00
2.168297e+01	1.396207e+01	6.776493e+00
2.169035e+01	1.395867e+01	6.686496e+00
2.169773e+01	1.395528e+01	6.596499e+00
2.170511e+01	1.395189e+01	6.506502e+00
2.223645e+01	1.370770e+01	2.670773e-02
2.224383e+01	1.370431e+01	-6.328941e-02
2.159098e+01	1.404990e+01	7.219290e+00
2.159836e+01	1.404651e+01	7.129293e+00
2.160574e+01	1.404312e+01	7.039296e+00
2.161312e+01	1.403973e+01	6.949299e+00
2.218873e+01	1.377519e+01	-7.047817e-02
2.219611e+01	1.377179e+01	-1.604753e-01
2.149899e+01	1.413774e+01	7.662087e+00
2.150637e+01	1.413435e+01	7.572090e+00
2.151375e+01	1.413096e+01	7.482093e+00
2.152113e+01	1.412757e+01	7.392096e+00
2.152851e+01	1.412417e+01	7.302098e+00
2.214102e+01	1.384267e+01	-1.676641e-01
2.214840e+01	1.383928e+01	-2.576612e-01
2.140700e+01	1.422558e+01	8.104884e+00
2.141438e+01	1.422219e+01	8.014887e+00
2.142176e+01	1.421880e+01	7.924890e+00
2.142914e+01	1.421540e+01	7.834893e+00
2.143652e+01	1.421201e+01	7.744895e+00
2.209330e+01	1.391016e+01	-2.648500e-01
2.210068e+01	1.390677e+01	-3.548471e-01
2.130025e+01	1.432020e+01	8.727675e+00
2.130763e+01	1.431681e+01	8.637678e+00
2.131500e+01	1.431342e+01	8.547681e+00
2.132238e+01	1.431002e+01	8.457684e+00
2.132976e+01	1.430663e+01	8.367687e+00
2.133714e+01	1.430324e+01	8.277690e+00
2.134452e+01	1.429985e+01	8.187692e+00
2.204559e+01	1.397765e+01	-3.620359e-01
2.205297e+01	1.397426e+01	-4.520330e-01
2.119349e+01	1.441482e+01	9.350466e+00
2.120087e+01	1.441143e+01	9.260469e+00
2.120825e+01	1.440804e+01	9.170472e+00
2.121563e+01	1.440465e+01	9.080475e+00
2.122301e+01	1.440125e+01	8.990478e+00
2.123039e+01	1.439786e+01	8.900481e+00
2.123777e+01	1.439447e+01	8.810484e+00
2.199787e+01	1.404514e+01	-4.592218e-01
2.200525e+01	1.404175e+01	-5.492189e-01
2.107936e+01	1.451283e+01	1.006325e+01
2.108674e+01	1.450944e+01	9.973258e+00
2.109412e+01	1.450605e+01	9.883260e+00
2.110150e+01	1.450266e+01	9.793263e+00
2.110888e+01	1.449927e+01	9.703266e+00
2.111626e+01	1.449587e+01	9.613269e+00
2.112364e+01	1.449248e+01	9.523272e+00
2.113102e+01	1.448909e+01	9.433275e+00
2.195754e+01	1.410924e+01	-6.464048e-01
2.097261e+01	1.460745e+01	1.068605e+01
2.097999e+01	1.460406e+01	1.059605e+01
2.098737e+01	1.460067e+01	1.050605e+01
2.099475e+01	1.459728e+01	1.041605e+01
2.100213e+01	1.459389e+01	1.032606e+01
2.100951e+01	1.459050e+01	1.023606e+01
2.101689e+01	1.458710e+01	1.014606e+01
2.190982e+01	1.417672e+01	-7.435907e-01
2.191720e+01	1.417333e+01	-8.335879e-01
2.086586e+01	1.470207e+01	1.130884e+01
2.087324e+01	1.469868e+01	1.121884e+01
2.088062e+01	1.469529e+01	1.112884e+01
2.088800e+01	1.469190e+01	1.103885e+01
2.089538e+01	1.468851e+01	1.094885e+01
2.090276e+01	1.468512e+01	1.085885e+01
2.091014e+01	1.468173e+01	1.076885e+01
2.186211e+01	1.424421e+01	-8.407766e-01
2.186949e+01	1.424082e+01	-9.307738e-01
2.075173e+01	1.480009e+01	1.202163e+01
2.075911e+01	1.479670e+01	1.193163e+01
2.076649e+01	1.479330e+01	1.184163e+01
2.077387e+01	1.478991e+01	1.175163e+01
2.078125e+01	1.478652e+01	1.166164e+01
2.078863e+01	1.478313e+01	1.157164e+01
2.079601e+01	1.477974e+01	1.148164e+01
2.080339e+01	1.477635e+01	1.139165e+01
2.181440e+01	1.431170e+01	-9.379625e-01
2.182178e+01	1.430831e+01	-1.027960e+00
2.064498e+01	1.489471e+01	1.264442e+01
2.065236e+01	1.489132e+01	1.255442e+01
2.065974e+01	1.488792e+01	1.246442e+01
2.066712e+01	1.488453e+01	1.237443e+01
2.067450e+01	1.488114e+01	1.228443e+01
2.068188e+01	1.487775e+01	1.219443e+01
2.068925e+01	1.487436e+01	1.210443e+01
2.176668e+01	1.437919e+01	-1.035148e+00
2.177406e+01	1.437580e+01	-1.125146e+00
2.053823e+01	1.498933e+01	1.326721e+01
2.054561e+01	1.498594e+01	1.317721e+01
2.055298e+01	1.498255e+01	1.308721e+01
2.056036e+01	1.497915e+01	1.299722e+01
2.056774e+01	1.497576e+01	1.290722e+01
2.057512e+01	1.497237e+01	1.281722e+01
2.058250e+01	1.496898e+01	1.272723e+01
2.171897e+01	1.444668e+01	-1.132334e+00
2.172635e+01	1.444329e+01	-1.222331e+00
2.042409e+01	1.508734e+01	1.398000e+01
2.043147e+01	1.508395e+01	1.389000e+01
2.043885e+01	1.508056e+01	1.380000e+01
2.044623e+01	1.507717e+01	1.371000e+01
2.045361e+01	1.507377e+01	1.362001e+01
2.046099e+01	1.507038e+01	1.353001e+01
2.046837e+01	1.506699e+01	1.344001e+01
2.047575e+01	1.506360e+01	1.335002e+01
2.167125e+01	1.451417e+01	-1.229520e+00
2.167863e+01	1.451077e+01	-1.319517e+00
2.031734e+01	1.518196e+01	1.460279e+01
2.032472e+01	1.517857e+01	1.451279e+01
2.033210e+01	1.517518e+01	1.442279e+01
2.033948e+01	1.517179e+01	1.433280e+01
2.034686e+01	1.516840e+01	1.424280e+01
2.035424e+01	1.516500e+01	1.415280e+01
2.036162e+01	1.516161e+01	1.406280e+01
2.163092e+01	1.457826e+01	-1.416703e+00
2.021059e+01	1.527658e+01	1.522558e+01
2.021797e+01	1.527319e+01	1.513558e+01
2.022535e+01	1.526980e+01	1.504558e+01
2.023273e+01	1.526641e+01	1.495559e+01
2.024011e+01	1.526302e+01	1.486559e+01
2.024749e+01	1.525962e+01	1.477559e+01
2.025487e+01	1.525623e+01	1.468560e+01
2.158320e+01	1.464575e+01	-1.513889e+00
2.159058e+01	1.464236e+01	-1.603886e+00
2.010384e+01	1.537120e+01	1.584837e+01
2.011122e+01	1.536781e+01	1.575837e+01
2.011860e+01	1.536442e+01	1.566838e+01
2.012598e+01	1.536103e+01	1.557838e+01
2.013336e+01	1.535764e+01	1.548838e+01
2.014074e+01	1.535425e+01	1.539838e+01
2.014812e+01	1.535085e+01	1.530839e+01
2.153549e+01	1.471324e+01	-1.611075e+00
2.154287e+01	1.470985e+01	-1.701072e+00
1.999709e+01	1.546582e+01	1.647116e+01
2.000447e+01	1.546243e+01	1.638116e+01
2.001185e+01	1.545904e+01	1.629117e+01
2.001923e+01	1.545565e+01	1.620117e+01
2.002661e+01	1.545226e+01	1.611117e+01
2.003399e+01	1.544887e+01	1.602118e+01
2.004137e+01	1.544547e+01	1.593118e+01
2.148777e+01	1.478073e+01	-1.708261e+00
1.989034e+01	1.556045e+01	1.709395e+01
1.989772e+01	1.555705e+01	1.700396e+01
1.990510e+01	1.555366e+01	1.691396e+01
1.991248e+01	1.555027e+01	1.682396e+01
1.991986e+01	1.554688e+01	1.673396e+01
1.992723e+01	1.554349e+01	1.664397e+01
1.993461e+01	1.554010e+01	1.655397e+01
2.144006e+01	1.484822e+01	-1.805447e+00
1.979834e+01	1.564828e+01	1.753675e+01
1.980572e+01	1.564489e+01	1.744675e+01
1.981310e+01	1.564150e+01	1.735676e+01
1.982048e+01	1.563811e+01	1.726676e+01
1.982786e+01	1.563472e+01	1.717676e+01
2.138497e+01	1.491910e+01	-1.812636e+00
1.972111e+01	1.572934e+01	1.779955e+01
1.972849e+01	1.572595e+01	1.770955e+01
1.973587e+01	1.572255e+01	1.761956e+01
2.133725e+01	1.498658e+01	-1.909822e+00
1.964388e+01	1.581039e+01	1.806235e+01
1.965126e+01	1.580700e+01	1.797236e+01
1.965864e+01	1.580361e+01	1.788236e+01
2.128216e+01	1.505746e+01	-1.917010e+00
1.956665e+01	1.589145e+01	1.832516e+01
1.957403e+01	1.588805e+01	1.823516e+01
1.958140e+01	1.588466e+01	1.814516e+01
2.122706e+01	1.512834e+01	-1.924199e+00
1.948941e+01	1.597250e+01	1.858796e+01
1.949679e+01	1.596911e+01	1.849796e+01
1.950417e+01	1.596572e+01	1.840797e+01
2.117935e+01	1.519583e+01	-2.021385e+00
1.941218e+01	1.605356e+01	1.885076e+01
1.941956e+01	1.605016e+01	1.876077e+01
1.942694e+01	1.604677e+01	1.867077e+01
2.112425e+01	1.526671e+01	-2.028574e+00
1.933495e+01	1.613461e+01	1.911357e+01
1.934233e+01	1.613122e+01	1.902357e+01
1.934971e+01	1.612783e+01	1.893357e+01
2.106916e+01	1.533759e+01	-2.035763e+00
1.925771e+01	1.621566e+01	1.937637e+01
1.926509e+01	1.621227e+01	1.928637e+01
1.927247e+01	1.620888e+01	1.919637e+01
2.102145e+01	1.540508e+01	-2.132948e+00
1.918048e+01	1.629672e+01	1.963917e+01
1.918786e+01	1.629333e+01	1.954917e+01
1.919524e+01	1.628994e+01	1.945918e+01
2.096635e+01	1.547596e+01	-2.140137e+00
1.910325e+01	1.637777e+01	1.990197e+01
1.911063e+01	1.637438e+01	1.981198e+01
1.911801e+01	1.637099e+01	1.972198e+01
2.091126e+01	1.554684e+01	-2.147326e+00
1.903339e+01	1.645544e+01	2.007478e+01
1.904077e+01	1.645205e+01	1.998478e+01
2.086354e+01	1.561433e+01	-2.244512e+00
1.895616e+01	1.653649e+01	2.033758e+01
1.896354e+01	1.653310e+01	2.024758e+01
1.897092e+01	1.652971e+01	2.015759e+01
2.080845e+01	1.568521e+01	-2.251701e+00
1.887893e+01	1.661755e+01	2.060038e+01
1.888631e+01	1.661415e+01	2.051039e+01
1.889369e+01	1.661076e+01	2.042039e+01
2.075336e+01	1.575609e+01	-2.258889e+00
1.880170e+01	1.669860e+01	2.086319e+01
1.880908e+01	1.669521e+01	2.077319e+01
1.881645e+01	1.669182e+01	2.068319e+01
2.069826e+01	1.582697e+01	-2.266078e+00
1.873184e+01	1.677626e+01	2.103599e+01
1.873922e+01	1.677287e+01	2.094600e+01
2.064317e+01	1.589785e+01	-2.273267e+00
1.865461e+01	1.685732e+01	2.129879e+01
1.866199e+01	1.685393e+01	2.120880e+01
1.866937e+01	1.685053e+01	2.111880e+01
2.058807e+01	1.596873e+01	-2.280456e+00
1.857738e+01	1.693837e+01	2.156160e+01
1.858476e+01	1.693498e+01	2.147160e+01
1.859214e+01	1.693159e+01	2.138160e+01
2.053298e+01	1.603961e+01	-2.287644e+00
1.850752e+01	1.701604e+01	2.173440e+01
1.851490e+01	1.701264e+01	2.164441e+01
2.047789e+01	1.611049e+01	-2.294833e+00
1.843029e+01	1.709709e+01	2.199721e+01
1.843767e+01	1.709370e+01	2.190721e+01
1.844505e+01	1.709031e+01	2.181721e+01
2.042279e+01	1.618137e+01	-2.302022e+00
1.835306e+01	1.717814e+01	2.226001e+01
1.836044e+01	1.717475e+01	2.217001e+01
1.836782e+01	1.717136e+01	2.208001e+01
2.036770e+01	1.625225e+01	-2.309211e+00
1.828320e+01	1.725581e+01	2.243281e+01
1.829058e+01	1.725242e+01	2.234282e+01
2.031260e+01	1.632313e+01	-2.316399e+00
1.820597e+01	1.733686e+01	2.269562e+01
1.821335e+01	1.733347e+01	2.260562e+01
1.822073e+01	1.733008e+01	2.251562e+01
2.025751e+01	1.639401e+01	-2.323588e+00
1.812874e+01	1.741792e+01	2.295842e+01
1.813612e+01	1.741453e+01	2.286842e+01
1.814350e+01	1.741113e+01	2.277842e+01
2.019504e+01	1.646828e+01	-2.240780e+00
1.805150e+01	1.749897e+01	2.322122e+01
1.805888e+01	1.749558e+01	2.313122e+01
1.806626e+01	1.749219e+01	2.304123e+01
2.013994e+01	1.653916e+01	-2.247969e+00
1.798165e+01	1.757663e+01	2.339403e+01
1.798903e+01	1.757324e+01	2.330403e+01
2.008485e+01	1.661004e+01	-2.255157e+00
1.790442e+01	1.765769e+01	2.365683e+01
1.791180e+01	1.765430e+01	2.356683e+01
1.791918e+01	1.765091e+01	2.347684e+01
2.002237e+01	1.668431e+01	-2.172349e+00
1.782719e+01	1.773874e+01	2.391963e+01
1.783456e+01	1.773535e+01	2.382964e+01
1.784194e+01	1.773196e+01	2.373964e+01
1.996728e+01	1.675519e+01	-2.179538e+00
1.775733e+01	1.781641e+01	2.409244e+01
1.776471e+01	1.781301e+01	2.400244e+01
1.990481e+01	1.682946e+01	-2.096729e+00
1.768010e+01	1.789746e+01	2.435524e+01
1.768748e+01	1.789407e+01	2.426524e+01
1.769486e+01	1.789068e+01	2.417525e+01
1.984233e+01	1.690373e+01	-2.013921e+00
1.760287e+01	1.797852e+01	2.461804e+01
1.761025e+01	1.797512e+01	2.452805e+01
1.761763e+01	1.797173e+01	2.443805e+01
1.978724e+01	1.697461e+01	-2.021110e+00
1.753301e+01	1.805618e+01	2.479085e+01
1.754039e+01	1.805279e+01	2.470085e+01
1.972476e+01	1.704888e+01	-1.938301e+00
1.747792e+01	1.812706e+01	2.478366e+01
1.966229e+01	1.712315e+01	-1.855493e+00
1.742282e+01	1.819794e+01	2.477647e+01
1.743020e+01	1.819455e+01	2.468647e+01
1.960720e+01	1.719403e+01	-1.862682e+00
1.737511e+01	1.826543e+01	2.467929e+01
1.954472e+01	1.726830e+01	-1.779873e+00
1.732740e+01	1.833291e+01	2.458210e+01
1.948225e+01	1.734258e+01	-1.697065e+00
1.727968e+01	1.840040e+01	2.448491e+01
1.942715e+01	1.741346e+01	-1.704254e+00
1.722459e+01	1.847128e+01	2.447772e+01
1.936468e+01	1.748773e+01	-1.621445e+00
1.717687e+01	1.853877e+01	2.438054e+01
1.930221e+01	1.756200e+01	-1.538637e+00
1.712916e+01	1.860626e+01	2.428335e+01
1.924711e+01	1.763288e+01	-1.545826e+00
1.707406e+01	1.867714e+01	2.427616e+01
1.708144e+01	1.867375e+01	2.418617e+01
1.918464e+01	1.770715e+01	-1.463017e+00
1.702635e+01	1.874463e+01	2.417898e+01
1.911479e+01	1.778481e+01	-1.290212e+00
1.912217e+01	1.778142e+01	-1.380209e+00
1.697864e+01	1.881212e+01	2.408179e+01
1.904493e+01	1.786248e+01	-1.117406e+00
1.905231e+01	1.785908e+01	-1.207404e+00
1.693092e+01	1.887960e+01	2.398461e+01
1.693830e+01	1.887621e+01	2.389461e+01
1.897508e+01	1.794014e+01	-9.446009e-01
1.898246e+01	1.793675e+01	-1.034598e+00
1.689059e+01	1.894370e+01	2.379742e+01
1.689797e+01	1.894031e+01	2.370743e+01
1.690535e+01	1.893692e+01	2.361743e+01
1.890523e+01	1.801780e+01	-7.717954e-01
1.891261e+01	1.801441e+01	-8.617925e-01
1.685763e+01	1.900441e+01	2.352024e+01
1.686501e+01	1.900101e+01	2.343025e+01
1.687239e+01	1.899762e+01	2.334025e+01
1.687977e+01	1.899423e+01	2.325025e+01
1.883537e+01	1.809547e+01	-5.989899e-01
1.884275e+01	1.809207e+01	-6.889870e-01
1.683206e+01	1.906172e+01	2.315307e+01
1.683943e+01	1.905833e+01	2.306307e+01
1.684681e+01	1.905494e+01	2.297307e+01
1.876552e+01	1.817313e+01	-4.261844e-01
1.877290e+01	1.816974e+01	-5.161815e-01
1.679910e+01	1.912242e+01	2.287589e+01
1.680648e+01	1.911903e+01	2.278589e+01
1.681386e+01	1.911564e+01	2.269589e+01
1.682124e+01	1.911225e+01	2.260589e+01
1.869567e+01	1.825079e+01	-2.533788e-01
1.870305e+01	1.824740e+01	-3.433760e-01
1.677352e+01	1.917974e+01	2.250871e+01
1.678090e+01	1.917635e+01	2.241871e+01
1.678828e+01	1.917296e+01	2.232871e+01
1.795427e+01	1.863709e+01	8.109166e+00
1.796165e+01	1.863370e+01	8.019169e+00
1.796903e+01	1.863030e+01	7.929172e+00
1.797640e+01	1.862691e+01	7.839175e+00
1.862581e+01	1.832845e+01	-8.057333e-02
1.863319e+01	1.832506e+01	-1.705705e-01
1.674057e+01	1.924044e+01	2.223153e+01
1.674795e+01	1.923705e+01	2.214153e+01
1.675533e+01	1.923366e+01	2.205153e+01
1.676271e+01	1.923027e+01	2.196154e+01
1.778110e+01	1.876223e+01	9.541932e+00
1.778848e+01	1.875884e+01	9.451935e+00
1.779586e+01	1.875545e+01	9.361938e+00
1.780324e+01	1.875206e+01	9.271940e+00
1.781062e+01	1.874867e+01	9.181943e+00
1.781800e+01	1.874527e+01	9.091946e+00
1.782538e+01	1.874188e+01	9.001949e+00
1.783276e+01	1.873849e+01	8.911952e+00
1.784013e+01	1.873510e+01	8.821955e+00
1.784751e+01	1.873171e+01	8.731958e+00
1.785489e+01	1.872832e+01	8.641960e+00
1.786227e+01	1.872492e+01	8.551963e+00
1.786965e+01	1.872153e+01	8.461966e+00
1.787703e+01	1.871814e+01	8.371969e+00
1.788441e+01	1.871475e+01	8.281972e+00
1.789179e+01	1.871136e+01	8.191975e+00
1.792869e+01	1.869440e+01	7.741989e+00
1.793607e+01	1.869101e+01	7.651992e+00
1.794345e+01	1.868762e+01	7.561995e+00
1.795083e+01	1.868423e+01	7.471998e+00
1.795821e+01	1.868083e+01	7.382000e+00
1.796559e+01	1.867744e+01	7.292003e+00
1.797297e+01	1.867405e+01	7.202006e+00
1.855596e+01	1.840612e+01	9.223219e-02
1.856334e+01	1.840273e+01	2.235046e-03
1.671499e+01	1.929776e+01	2.186435e+01
1.672237e+01	1.929437e+01	2.177435e+01
1.672975e+01	1.929097e+01	2.168436e+01
1.673713e+01	1.928758e+01	2.159436e+01
1.674451e+01	1.928419e+01	2.150436e+01
1.675189e+01	1.928080e+01	2.141437e+01
1.675927e+01	1.927741e+01	2.132437e+01
1.768173e+01	1.885346e+01	1.007473e+01
1.768911e+01	1.885007e+01	9.984729e+00
1.769649e+01	1.884668e+01	9.894732e+00
1.770386e+01	1.884329e+01	9.804734e+00
1.771124e+01	1.883989e+01	9.714737e+00
1.771862e+01	1.883650e+01	9.624740e+00
1.792525e+01	1.874154e+01	7.104820e+00
1.793263e+01	1.873815e+01	7.014823e+00
1.794001e+01	1.873476e+01	6.924826e+00
1.794739e+01	1.873136e+01	6.834829e+00
1.795477e+01	1.872797e+01	6.744832e+00
1.796215e+01	1.872458e+01	6.654835e+00
1.796953e+01	1.872119e+01	6.564837e+00
1.848611e+01	1.848378e+01	2.650377e-01
1.849349e+01	1.848039e+01	1.750406e-01
1.671156e+01	1.934490e+01	2.122718e+01
1.671894e+01	1.934150e+01	2.113719e+01
1.672632e+01	1.933811e+01	2.104719e+01
1.673370e+01	1.933472e+01	2.095719e+01
1.674108e+01	1.933133e+01	2.086719e+01
1.674846e+01	1.932794e+01	2.077720e+01
1.675583e+01	1.932455e+01	2.068720e+01
1.676321e+01	1.932115e+01	2.059720e+01
1.677059e+01	1.931776e+01	2.050721e+01
1.677797e+01	1.931437e+01	2.041721e+01
1.678535e+01	1.931098e+01	2.032721e+01
1.679273e+01	1.930759e+01	2.023721e+01
1.680011e+01	1.930420e+01	2.014722e+01
1.680749e+01	1.930081e+01	2.005722e+01
1.681487e+01	1.929741e+01	1.996722e+01
1.682225e+01	1.929402e+01	1.987723e+01
1.682963e+01	1.929063e+01	1.978723e+01
1.683701e+01	1.928724e+01	1.969723e+01
1.684439e+01	1.928385e+01	1.960723e+01
1.685177e+01	1.928046e+01	1.951724e+01
1.685915e+01	1.927706e+01	1.942724e+01
1.686653e+01	1.927367e+01	1.933724e+01
1.687391e+01	1.927028e+01	1.924725e+01
1.688129e+01	1.926689e+01	1.915725e+01
1.688867e+01	1.926350e+01	1.906725e+01
1.689605e+01	1.926011e+01	1.897725e+01
1.690343e+01	1.925671e+01	1.888726e+01
1.691081e+01	1.925332e+01	1.879726e+01
1.691819e+01	1.924993e+01	1.870726e+01
1.692557e+01	1.924654e+01	1.861727e+01
1.693295e+01	1.924315e+01	1.852727e+01
1.694033e+01	1.923976e+01	1.843727e+01
1.694771e+01	1.923637e+01	1.834727e+01
1.695509e+01	1.923297e+01	1.825728e+01
1.696246e+01	1.922958e+01	1.816728e+01
1.696984e+01	1.922619e+01	1.807728e+01
1.758235e+01	1.894469e+01	1.060752e+01
1.758973e+01	1.894130e+01	1.051752e+01
1.759711e+01	1.893791e+01	1.042753e+01
1.760449e+01	1.893452e+01	1.033753e+01
1.761187e+01	1.893112e+01	1.024753e+01
1.761925e+01	1.892773e+01	1.015753e+01
1.792182e+01	1.878868e+01	6.467652e+00
1.792920e+01	1.878529e+01	6.377654e+00
1.793658e+01	1.878190e+01	6.287657e+00
1.794396e+01	1.877850e+01	6.197660e+00
1.795134e+01	1.877511e+01	6.107663e+00
1.795872e+01	1.877172e+01	6.017666e+00
1.796610e+01	1.876833e+01	5.927669e+00
1.841625e+01	1.856144e+01	4.378432e-01
1.842363e+01	1.855805e+01	3.478461e-01
1.692213e+01	1.929368e+01	1.798010e+01
1.692951e+01	1.929029e+01	1.789010e+01
1.693689e+01	1.928690e+01	1.780010e+01
1.694427e+01	1.928350e+01	1.771011e+01
1.695165e+01	1.928011e+01	1.762011e+01
1.695903e+01	1.927672e+01	1.753011e+01
1.696641e+01	1.927333e+01	1.744011e+01
1.697379e+01	1.926994e+01	1.735012e+01
1.698117e+01	1.926655e+01	1.726012e+01
1.698855e+01	1.926315e+01	1.717012e+01
1.699593e+01	1.925976e+01	1.708013e+01
1.700331e+01	1.925637e+01	1.699013e+01
1.748298e+01	1.903592e+01	1.114031e+01
1.749036e+01	1.903253e+01	1.105032e+01
1.749774e+01	1.902914e+01	1.096032e+01
1.750512e+01	1.902574e+01	1.087032e+01
1.751250e+01	1.902235e+01	1.078033e+01
1.751988e+01	1.901896e+01	1.069033e+01
1.791838e+01	1.883582e+01	5.830483e+00
1.792576e+01	1.883243e+01	5.740486e+00
1.793314e+01	1.882903e+01	5.650489e+00
1.794052e+01	1.882564e+01	5.560491e+00
1.794790e+01	1.882225e+01	5.470494e+00
1.795528e+01	1.881886e+01	5.380497e+00
1.834640e+01	1.863911e+01	6.106487e-01
1.835378e+01	1.863571e+01	5.206516e-01
1.695559e+01	1.932386e+01	1.689294e+01
1.696297e+01	1.932047e+01	1.680295e+01
1.697035e+01	1.931708e+01	1.671295e+01
1.697773e+01	1.931369e+01	1.662295e+01
1.698511e+01	1.931029e+01	1.653295e+01
1.699249e+01	1.930690e+01	1.644296e+01
1.699987e+01	1.930351e+01	1.635296e+01
1.700725e+01	1.930012e+01	1.626296e+01
1.701463e+01	1.929673e+01	1.617297e+01
1.702201e+01	1.929334e+01	1.608297e+01
1.702939e+01	1.928994e+01	1.599297e+01
1.718436e+01	1.921872e+01	1.410303e+01
1.719174e+01	1.921533e+01	1.401303e+01
1.719912e+01	1.921194e+01	1.392304e+01
1.720650e+01	1.920855e+01	1.383304e+01
1.721388e+01	1.920516e+01	1.374304e+01
1.722126e+01	1.920176e+01	1.365305e+01
1.722864e+01	1.919837e+01	1.356305e+01
1.723602e+01	1.919498e+01	1.347305e+01
1.724340e+01	1.919159e+01	1.338305e+01
1.725078e+01	1.918820e+01	1.329306e+01
1.725816e+01	1.918481e+01	1.320306e+01
1.726554e+01	1.918141e+01	1.311306e+01
1.727292e+01	1.917802e+01	1.302307e+01
1.728030e+01	1.917463e+01	1.293307e+01
1.728768e+01	1.917124e+01	1.284307e+01
1.729505e+01	1.916785e+01	1.275307e+01
1.730243e+01	1.916446e+01	1.266308e+01
1.730981e+01	1.916106e+01	1.257308e+01
1.731719e+01	1.915767e+01	1.248308e+01
1.732457e+01	1.915428e+01	1.239309e+01
1.733195e+01	1.915089e+01	1.230309e+01
1.733933e+01	1.914750e+01	1.221309e+01
1.734671e+01	1.914411e+01	1.212309e+01
1.735409e+01	1.914072e+01	1.203310e+01
1.736147e+01	1.913732e+01	1.194310e+01
1.736885e+01	1.913393e+01	1.185310e+01
1.737623e+01	1.913054e+01	1.176311e+01
1.738361e+01	1.912715e+01	1.167311e+01
1.739099e+01	1.912376e+01	1.158311e+01
1.739837e+01	1.912037e+01	1.149311e+01
1.740575e+01	1.911697e+01	1.140312e+01
1.741313e+01	1.911358e+01	1.131312e+01
1.742051e+01	1.911019e+01	1.122312e+01
1.790756e+01	1.888635e+01	5.283311e+00
1.791494e+01	1.888296e+01	5.193314e+00
1.792232e+01	1.887956e+01	5.103317e+00
1.792970e+01	1.887617e+01	5.013320e+00
1.793708e+01	1.887278e+01	4.923323e+00
1.794446e+01	1.886939e+01	4.833326e+00
1.795184e+01	1.886600e+01	4.743328e+00
1.827655e+01	1.871677e+01	7.834542e-01
1.828393e+01	1.871338e+01	6.934571e-01
1.698167e+01	1.935743e+01	1.589578e+01
1.698905e+01	1.935404e+01	1.580579e+01
1.699643e+01	1.935065e+01	1.571579e+01
1.700381e+01	1.934726e+01	1.562579e+01
1.701119e+01	1.934387e+01	1.553580e+01
1.701857e+01	1.934047e+01	1.544580e+01
1.702595e+01	1.933708e+01	1.535580e+01
1.703333e+01	1.933369e+01	1.526580e+01
1.704071e+01	1.933030e+01	1.517581e+01
1.704809e+01	1.932691e+01	1.508581e+01
1.705547e+01	1.932352e+01	1.499581e+01
1.706285e+01	1.932013e+01	1.490582e+01
1.707023e+01	1.931673e+01	1.481582e+01
1.707761e+01	1.931334e+01	1.472582e+01
1.708499e+01	1.930995e+01	1.463582e+01
1.709237e+01	1.930656e+01	1.454583e+01
1.709975e+01	1.930317e+01	1.445583e+01
1.710713e+01	1.929978e+01	1.436583e+01
1.711451e+01	1.929638e+01	1.427584e+01
1.712189e+01	1.929299e+01	1.418584e+01
1.790413e+01	1.893349e+01	4.646142e+00
1.791151e+01	1.893009e+01	4.556145e+00
1.791889e+01	1.892670e+01	4.466148e+00
1.792627e+01	1.892331e+01	4.376151e+00
1.793365e+01	1.891992e+01	4.286154e+00
1.794103e+01	1.891653e+01	4.196157e+00
1.794841e+01	1.891314e+01	4.106160e+00
1.819931e+01	1.879782e+01	1.046257e+00
1.820669e+01	1.879443e+01	9.562598e-01
1.821407e+01	1.879104e+01	8.662626e-01
1.790069e+01	1.898063e+01	4.008974e+00
1.790807e+01	1.897723e+01	3.918977e+00
1.791545e+01	1.897384e+01	3.828979e+00
1.792283e+01	1.897045e+01	3.738982e+00
1.793021e+01	1.896706e+01	3.648985e+00
1.793759e+01	1.896367e+01	3.558988e+00
1.794497e+01	1.896028e+01	3.468991e+00
1.795235e+01	1.895688e+01	3.378994e+00
1.795973e+01	1.895349e+01	3.288997e+00
1.796711e+01	1.895010e+01	3.198999e+00
1.797449e+01	1.894671e+01	3.109002e+00
1.812946e+01	1.887549e+01	1.219062e+00
1.813684e+01	1.887209e+01	1.129065e+00
1.792677e+01	1.901420e+01	3.011816e+00
1.793415e+01	1.901081e+01	2.921819e+00
1.794153e+01	1.900741e+01	2.831822e+00
1.794891e+01	1.900402e+01	2.741825e+00
1.795629e+01	1.900063e+01	2.651828e+00
1.796367e+01	1.899724e+01	2.561831e+00
1.797105e+01	1.899385e+01	2.471834e+00
1.797843e+01	1.899046e+01	2.381836e+00
1.798581e+01	1.898707e+01	2.291839e+00
1.799319e+01	1.898367e+01	2.201842e+00
1.800057e+01	1.898028e+01	2.111845e+00
1.800795e+01	1.897689e+01	2.021848e+00
1.801533e+01	1.897350e+01	1.931851e+00
1.802271e+01	1.897011e+01	1.841854e+00
1.803009e+01	1.896672e+01	1.751856e+00
1.803747e+01	1.896332e+01	1.661859e+00
1.804485e+01	1.895993e+01	1.571862e+00
1.805223e+01	1.895654e+01	1.481865e+00
1.805961e+01	1.895315e+01	1.391868e+00
1.806699e+01	1.894976e+01	1.301871e+00
